3.700000000000000000e+02 5.200000000000000000e+02 5.048570000000000277e+02
3.700000000000000000e+02 5.770000000000000000e+02 1.301829999999999927e+02
3.700000000000000000e+02 5.780000000000000000e+02 1.916179999999999950e+01
3.700000000000000000e+02 5.860000000000000000e+02 1.827580000000000098e+02
3.710000000000000000e+02 1.000000000000000000e+02 2.541109999999999758e+01
3.710000000000000000e+02 1.060000000000000000e+02 1.096710000000000065e+02
3.710000000000000000e+02 1.150000000000000000e+02 3.600359999999999872e+01
3.710000000000000000e+02 1.180000000000000000e+02 8.554579999999999984e+01
3.710000000000000000e+02 1.210000000000000000e+02 3.239039999999999964e+01
3.710000000000000000e+02 1.270000000000000000e+02 1.002060000000000031e+02
3.710000000000000000e+02 1.600000000000000000e+02 3.018290000000000006e+01
3.710000000000000000e+02 1.630000000000000000e+02 1.294740000000000180e+02
3.710000000000000000e+02 1.720000000000000000e+02 5.629830000000000467e+01
3.710000000000000000e+02 2.380000000000000000e+02 3.962590000000000146e+01
3.710000000000000000e+02 3.770000000000000000e+02 2.183489999999999895e+02
3.710000000000000000e+02 3.780000000000000000e+02 1.829900000000000091e+02
3.710000000000000000e+02 3.790000000000000000e+02 1.608070000000000164e+02
3.710000000000000000e+02 3.800000000000000000e+02 1.015419999999999874e+02
3.710000000000000000e+02 3.810000000000000000e+02 1.381519999999999868e+02
3.710000000000000000e+02 4.440000000000000000e+02 6.303480000000000700e+02
3.710000000000000000e+02 4.460000000000000000e+02 6.176009999999999991e+02
3.710000000000000000e+02 4.480000000000000000e+02 6.571920000000000073e+02
3.710000000000000000e+02 4.530000000000000000e+02 7.654130000000000109e+02
3.710000000000000000e+02 4.590000000000000000e+02 6.505199999999999818e+02
3.710000000000000000e+02 4.620000000000000000e+02 6.711910000000000309e+02
3.710000000000000000e+02 4.640000000000000000e+02 7.806849999999999454e+02
3.710000000000000000e+02 4.650000000000000000e+02 8.280090000000000146e+02
3.710000000000000000e+02 4.660000000000000000e+02 8.509259999999999309e+02
3.710000000000000000e+02 4.780000000000000000e+02 8.966599999999999682e+02
3.710000000000000000e+02 4.790000000000000000e+02 9.266140000000000327e+02
3.710000000000000000e+02 4.930000000000000000e+02 6.812309999999999945e+02
3.710000000000000000e+02 5.010000000000000000e+02 7.477690000000000055e+02
3.710000000000000000e+02 5.090000000000000000e+02 8.199809999999999945e+02
3.710000000000000000e+02 5.110000000000000000e+02 6.884619999999999891e+02
3.710000000000000000e+02 5.760000000000000000e+02 6.885229999999999961e+00
3.710000000000000000e+02 5.830000000000000000e+02 1.064939999999999998e+02
3.710000000000000000e+02 5.850000000000000000e+02 5.914429999999999410e+01
3.720000000000000000e+02 7.200000000000000000e+01 3.754960000000000520e+01
3.720000000000000000e+02 9.900000000000000000e+01 6.562529999999999575e+01
3.720000000000000000e+02 1.050000000000000000e+02 8.496689999999999543e+01
3.720000000000000000e+02 1.140000000000000000e+02 1.538229999999999897e+01
3.720000000000000000e+02 1.200000000000000000e+02 6.048440000000000261e+00
3.720000000000000000e+02 1.260000000000000000e+02 2.760810000000000031e+01
3.720000000000000000e+02 1.590000000000000000e+02 7.063949999999999818e+01
3.720000000000000000e+02 1.620000000000000000e+02 5.541900000000000404e+01
3.720000000000000000e+02 2.340000000000000000e+02 1.029250000000000043e+01
3.720000000000000000e+02 2.370000000000000000e+02 1.432589999999999861e+02
3.720000000000000000e+02 3.780000000000000000e+02 2.568599999999999568e+02
3.720000000000000000e+02 3.810000000000000000e+02 2.072920000000000016e+02
3.720000000000000000e+02 3.840000000000000000e+02 2.733360000000000127e+02
3.720000000000000000e+02 4.430000000000000000e+02 4.383690000000000282e+02
3.720000000000000000e+02 4.470000000000000000e+02 6.221730000000000018e+02
3.720000000000000000e+02 4.530000000000000000e+02 7.181530000000000200e+02
3.720000000000000000e+02 4.550000000000000000e+02 7.460349999999999682e+02
3.720000000000000000e+02 4.580000000000000000e+02 7.278299999999999272e+02
3.720000000000000000e+02 4.640000000000000000e+02 6.570439999999999827e+02
3.720000000000000000e+02 4.760000000000000000e+02 8.672240000000000464e+02
3.720000000000000000e+02 4.770000000000000000e+02 8.028899999999999864e+02
3.720000000000000000e+02 4.780000000000000000e+02 8.702659999999999627e+02
3.720000000000000000e+02 4.920000000000000000e+02 8.002390000000000327e+02
3.720000000000000000e+02 5.100000000000000000e+02 6.228470000000000937e+02
3.720000000000000000e+02 5.780000000000000000e+02 1.737730000000000246e+02
3.720000000000000000e+02 5.800000000000000000e+02 2.457100000000000080e+02
3.730000000000000000e+02 7.400000000000000000e+01 9.648189999999999600e+01
3.730000000000000000e+02 9.500000000000000000e+01 6.271810000000000329e+00
3.730000000000000000e+02 1.010000000000000000e+02 1.029969999999999999e+02
3.730000000000000000e+02 1.040000000000000000e+02 3.513499999999999801e+01
3.730000000000000000e+02 1.130000000000000000e+02 1.911149999999999949e+01
3.730000000000000000e+02 1.340000000000000000e+02 2.917190000000000083e+01
3.730000000000000000e+02 1.460000000000000000e+02 4.234060000000000201e+01
3.730000000000000000e+02 1.580000000000000000e+02 8.491899999999999693e+01
3.730000000000000000e+02 1.610000000000000000e+02 4.826429999999999332e+00
3.730000000000000000e+02 1.700000000000000000e+02 1.004339999999999955e-01
3.730000000000000000e+02 2.330000000000000000e+02 2.213559999999999661e+01
3.730000000000000000e+02 3.780000000000000000e+02 2.271490000000000009e+02
3.730000000000000000e+02 3.790000000000000000e+02 2.703960000000000150e+02
3.730000000000000000e+02 3.820000000000000000e+02 3.168429999999999609e+02
3.730000000000000000e+02 4.420000000000000000e+02 5.861129999999999427e+02
3.730000000000000000e+02 4.500000000000000000e+02 5.786299999999999955e+02
3.730000000000000000e+02 4.520000000000000000e+02 7.196979999999999791e+02
3.730000000000000000e+02 4.570000000000000000e+02 6.490089999999999009e+02
3.730000000000000000e+02 4.610000000000000000e+02 7.042570000000000618e+02
3.730000000000000000e+02 4.630000000000000000e+02 6.814299999999999500e+02
3.730000000000000000e+02 4.750000000000000000e+02 8.174729999999999563e+02
3.730000000000000000e+02 4.760000000000000000e+02 1.003049999999999955e+03
3.730000000000000000e+02 4.770000000000000000e+02 8.829169999999999163e+02
3.730000000000000000e+02 4.780000000000000000e+02 7.142079999999999700e+02
3.730000000000000000e+02 4.910000000000000000e+02 1.000379999999999995e+03
3.730000000000000000e+02 5.010000000000000000e+02 7.614080000000000155e+02
3.730000000000000000e+02 5.170000000000000000e+02 6.009020000000000437e+02
3.730000000000000000e+02 5.730000000000000000e+02 3.028630000000000155e+00
3.730000000000000000e+02 5.740000000000000000e+02 6.276500000000000057e+01
3.730000000000000000e+02 5.790000000000000000e+02 2.992269999999999897e+01
3.730000000000000000e+02 5.810000000000000000e+02 3.344710000000000036e+02
3.730000000000000000e+02 5.860000000000000000e+02 8.351390000000000313e+00
3.740000000000000000e+02 7.300000000000000000e+01 1.747109999999999985e+01
3.740000000000000000e+02 8.200000000000000000e+01 3.211010000000000275e+01
3.740000000000000000e+02 8.500000000000000000e+01 1.599389999999999823e+01
3.740000000000000000e+02 1.000000000000000000e+02 8.749160000000000537e+01
3.740000000000000000e+02 1.030000000000000000e+02 5.635550000000000637e+01
3.740000000000000000e+02 1.120000000000000000e+02 1.041740000000000066e+02
3.740000000000000000e+02 1.180000000000000000e+02 6.795350000000000534e+01
3.740000000000000000e+02 1.210000000000000000e+02 8.908710000000000662e+01
3.740000000000000000e+02 1.330000000000000000e+02 5.061880000000000024e+01
3.740000000000000000e+02 1.450000000000000000e+02 3.716769999999999641e+01
3.740000000000000000e+02 1.570000000000000000e+02 4.692919999999999447e+01
3.740000000000000000e+02 2.110000000000000000e+02 1.011599999999999966e+01
3.740000000000000000e+02 2.320000000000000000e+02 5.206980000000000075e+01
3.740000000000000000e+02 3.750000000000000000e+02 2.604060000000000059e+02
3.740000000000000000e+02 3.760000000000000000e+02 3.048559999999999945e+02
3.740000000000000000e+02 3.770000000000000000e+02 3.161080000000000041e+02
3.740000000000000000e+02 3.780000000000000000e+02 1.591480000000000246e+02
3.740000000000000000e+02 3.810000000000000000e+02 3.782019999999999982e+02
3.740000000000000000e+02 3.850000000000000000e+02 3.912570000000000050e+02
3.740000000000000000e+02 4.490000000000000000e+02 6.173910000000000764e+02
3.740000000000000000e+02 4.560000000000000000e+02 6.907379999999999427e+02
3.740000000000000000e+02 4.600000000000000000e+02 7.399010000000000673e+02
3.740000000000000000e+02 4.750000000000000000e+02 9.971390000000000100e+02
3.740000000000000000e+02 4.900000000000000000e+02 1.005919999999999959e+03
3.740000000000000000e+02 4.990000000000000000e+02 8.610409999999999400e+02
3.740000000000000000e+02 5.000000000000000000e+02 7.942949999999999591e+02
3.740000000000000000e+02 5.170000000000000000e+02 6.391190000000000282e+02
3.740000000000000000e+02 5.720000000000000000e+02 1.063449999999999918e+01
3.740000000000000000e+02 5.730000000000000000e+02 2.932189999999999941e+02
3.740000000000000000e+02 5.780000000000000000e+02 1.650919999999999987e+01
3.740000000000000000e+02 5.800000000000000000e+02 2.706549999999999727e+02
3.740000000000000000e+02 5.850000000000000000e+02 1.598530000000000086e+02
3.750000000000000000e+02 6.300000000000000000e+01 2.601120000000000232e+01
3.750000000000000000e+02 7.800000000000000000e+01 8.152070000000000505e+01
3.750000000000000000e+02 8.100000000000000000e+01 4.749960000000000093e+01
3.750000000000000000e+02 1.110000000000000000e+02 1.876020000000000110e+01
3.750000000000000000e+02 1.200000000000000000e+02 5.807450000000000045e+01
3.750000000000000000e+02 1.560000000000000000e+02 1.912980000000000018e+02
3.750000000000000000e+02 2.100000000000000000e+02 4.300199999999999534e+01
3.750000000000000000e+02 3.750000000000000000e+02 2.597970000000000255e+02
3.750000000000000000e+02 3.800000000000000000e+02 3.522309999999999945e+02
3.750000000000000000e+02 4.530000000000000000e+02 6.345199999999999818e+02
3.750000000000000000e+02 4.550000000000000000e+02 7.274439999999999600e+02
3.750000000000000000e+02 4.730000000000000000e+02 8.250240000000000009e+02
3.750000000000000000e+02 4.740000000000000000e+02 9.770750000000000455e+02
3.750000000000000000e+02 4.880000000000000000e+02 1.000960000000000036e+03
3.750000000000000000e+02 4.900000000000000000e+02 1.162849999999999909e+03
3.750000000000000000e+02 5.000000000000000000e+02 1.027349999999999909e+03
3.750000000000000000e+02 5.100000000000000000e+02 6.082480000000000473e+02
3.750000000000000000e+02 5.150000000000000000e+02 6.234819999999999709e+02
3.750000000000000000e+02 5.160000000000000000e+02 6.449039999999999964e+02
3.750000000000000000e+02 5.740000000000000000e+02 8.429420000000000357e+01
3.750000000000000000e+02 5.760000000000000000e+02 8.252510000000000900e+01
3.750000000000000000e+02 5.770000000000000000e+02 9.939670000000000982e+01
3.750000000000000000e+02 5.790000000000000000e+02 3.068919999999999959e+02
3.750000000000000000e+02 5.840000000000000000e+02 6.554919999999999902e+01
3.760000000000000000e+02 8.000000000000000000e+01 9.734230000000000871e+01
3.760000000000000000e+02 1.100000000000000000e+02 7.226770000000000493e+01
3.760000000000000000e+02 1.190000000000000000e+02 5.438629999999999853e+01
3.760000000000000000e+02 1.250000000000000000e+02 4.674860000000000326e+01
3.760000000000000000e+02 1.550000000000000000e+02 1.627949999999999875e+02
3.760000000000000000e+02 1.940000000000000000e+02 3.960829999999999984e+01
3.760000000000000000e+02 3.720000000000000000e+02 3.056119999999999663e+02
3.760000000000000000e+02 3.730000000000000000e+02 2.590489999999999782e+02
3.760000000000000000e+02 3.740000000000000000e+02 2.550160000000000196e+02
3.760000000000000000e+02 3.760000000000000000e+02 3.462660000000000196e+02
3.760000000000000000e+02 4.520000000000000000e+02 6.346749999999999545e+02
3.760000000000000000e+02 4.540000000000000000e+02 7.045470000000000255e+02
3.760000000000000000e+02 4.560000000000000000e+02 6.349669999999999845e+02
3.760000000000000000e+02 4.730000000000000000e+02 1.051099999999999909e+03
3.760000000000000000e+02 4.740000000000000000e+02 7.275650000000000546e+02
3.760000000000000000e+02 4.870000000000000000e+02 1.055670000000000073e+03
3.760000000000000000e+02 4.890000000000000000e+02 1.027439999999999827e+03
3.760000000000000000e+02 4.990000000000000000e+02 8.732440000000000282e+02
3.760000000000000000e+02 5.520000000000000000e+02 1.897189999999999941e+02
3.760000000000000000e+02 5.730000000000000000e+02 4.301139999999999475e+01
3.760000000000000000e+02 5.750000000000000000e+02 7.776320000000000121e+00
3.760000000000000000e+02 5.760000000000000000e+02 4.048259999999999792e+01
3.760000000000000000e+02 5.770000000000000000e+02 2.046949999999999932e+02
3.760000000000000000e+02 5.790000000000000000e+02 1.127429999999999950e+02
3.760000000000000000e+02 5.830000000000000000e+02 1.460750000000000171e+02
3.770000000000000000e+02 8.500000000000000000e+01 2.271529999999999916e+01
3.770000000000000000e+02 1.540000000000000000e+02 2.084449999999999932e+02
3.770000000000000000e+02 2.020000000000000000e+02 5.620159999999999911e+01
3.770000000000000000e+02 2.320000000000000000e+02 1.733339999999999748e+01
3.770000000000000000e+02 3.710000000000000000e+02 2.861469999999999914e+02
3.770000000000000000e+02 4.530000000000000000e+02 5.783450000000000273e+02
3.770000000000000000e+02 4.710000000000000000e+02 7.896589999999999918e+02
3.770000000000000000e+02 4.720000000000000000e+02 9.858229999999999791e+02
3.770000000000000000e+02 4.730000000000000000e+02 7.641580000000000155e+02
3.770000000000000000e+02 4.760000000000000000e+02 7.534950000000000045e+02
3.770000000000000000e+02 4.860000000000000000e+02 9.618840000000000146e+02
3.770000000000000000e+02 4.880000000000000000e+02 1.006320000000000050e+03
3.770000000000000000e+02 4.940000000000000000e+02 9.739969999999999573e+02
3.770000000000000000e+02 4.980000000000000000e+02 9.174379999999999882e+02
3.770000000000000000e+02 5.010000000000000000e+02 8.565710000000000264e+02
3.770000000000000000e+02 5.100000000000000000e+02 7.116739999999999782e+02
3.770000000000000000e+02 5.120000000000000000e+02 6.953829999999999245e+02
3.770000000000000000e+02 5.130000000000000000e+02 7.270450000000000728e+02
3.770000000000000000e+02 5.740000000000000000e+02 1.871539999999999893e+01
3.770000000000000000e+02 5.760000000000000000e+02 2.777549999999999955e+02
3.770000000000000000e+02 5.820000000000000000e+02 1.478379999999999939e+02
3.780000000000000000e+02 1.020000000000000000e+02 9.977790000000000603e+00
3.780000000000000000e+02 1.050000000000000000e+02 8.553950000000000387e+01
3.780000000000000000e+02 1.230000000000000000e+02 2.897719999999999985e+01
3.780000000000000000e+02 1.260000000000000000e+02 2.146770000000000067e+01
3.780000000000000000e+02 1.320000000000000000e+02 1.799530000000000030e+01
3.780000000000000000e+02 1.530000000000000000e+02 2.350730000000000075e+02
3.780000000000000000e+02 2.100000000000000000e+02 7.592219999999998947e+01
3.780000000000000000e+02 3.700000000000000000e+02 2.587610000000000241e+02
3.780000000000000000e+02 3.720000000000000000e+02 2.931399999999999864e+02
3.780000000000000000e+02 4.710000000000000000e+02 8.136520000000000437e+02
3.780000000000000000e+02 4.720000000000000000e+02 8.700740000000000691e+02
3.780000000000000000e+02 4.850000000000000000e+02 1.088130000000000109e+03
3.780000000000000000e+02 4.870000000000000000e+02 1.053279999999999973e+03
3.780000000000000000e+02 4.920000000000000000e+02 1.057779999999999973e+03
3.780000000000000000e+02 4.960000000000000000e+02 9.921109999999999900e+02
3.780000000000000000e+02 4.980000000000000000e+02 9.225850000000000364e+02
3.780000000000000000e+02 5.000000000000000000e+02 8.640649999999999409e+02
3.780000000000000000e+02 5.030000000000000000e+02 7.887899999999999636e+02
3.780000000000000000e+02 5.240000000000000000e+02 6.027050000000000409e+02
3.780000000000000000e+02 5.700000000000000000e+02 1.790050000000000097e+01
3.780000000000000000e+02 5.730000000000000000e+02 1.303859999999999957e+02
3.780000000000000000e+02 5.750000000000000000e+02 2.176460000000000150e+02
3.780000000000000000e+02 5.810000000000000000e+02 1.298150000000000261e+02
3.790000000000000000e+02 1.040000000000000000e+02 3.159929999999999595e+01
3.790000000000000000e+02 1.130000000000000000e+02 5.768029999999999546e+01
3.790000000000000000e+02 1.310000000000000000e+02 1.651599999999999824e+01
3.790000000000000000e+02 1.520000000000000000e+02 1.901100000000000136e+02
3.790000000000000000e+02 1.700000000000000000e+02 1.078559999999999945e+02
3.790000000000000000e+02 1.730000000000000000e+02 5.824950000000000472e+01
3.790000000000000000e+02 3.690000000000000000e+02 1.862989999999999782e+02
3.790000000000000000e+02 4.510000000000000000e+02 5.283709999999999809e+02
3.790000000000000000e+02 4.690000000000000000e+02 9.357870000000000346e+02
3.790000000000000000e+02 4.700000000000000000e+02 8.443349999999999227e+02
3.790000000000000000e+02 4.730000000000000000e+02 8.473579999999999472e+02
3.790000000000000000e+02 4.830000000000000000e+02 9.233759999999999764e+02
3.790000000000000000e+02 4.840000000000000000e+02 9.113360000000000127e+02
3.790000000000000000e+02 4.910000000000000000e+02 1.092079999999999927e+03
3.790000000000000000e+02 4.950000000000000000e+02 1.115069999999999936e+03
3.790000000000000000e+02 4.970000000000000000e+02 9.385839999999999463e+02
3.790000000000000000e+02 4.990000000000000000e+02 5.771810000000000400e+02
3.790000000000000000e+02 5.020000000000000000e+02 7.979399999999999409e+02
3.790000000000000000e+02 5.050000000000000000e+02 6.840439999999999827e+02
3.790000000000000000e+02 5.080000000000000000e+02 7.369980000000000473e+02
3.790000000000000000e+02 5.100000000000000000e+02 7.184650000000000318e+02
3.790000000000000000e+02 5.200000000000000000e+02 6.305300000000000864e+02
3.790000000000000000e+02 5.230000000000000000e+02 4.632789999999999964e+02
3.790000000000000000e+02 5.690000000000000000e+02 4.973029999999999973e+01
3.790000000000000000e+02 5.710000000000000000e+02 3.270370000000000346e+02
3.790000000000000000e+02 5.720000000000000000e+02 4.583949999999999747e+00
3.790000000000000000e+02 5.730000000000000000e+02 2.805889999999999986e+02
3.790000000000000000e+02 5.800000000000000000e+02 1.840639999999999930e+02
3.800000000000000000e+02 8.200000000000000000e+01 1.344309999999999938e+01
3.800000000000000000e+02 8.800000000000000000e+01 1.708940000000000126e+01
3.800000000000000000e+02 1.030000000000000000e+02 1.387629999999999875e+01
3.800000000000000000e+02 1.060000000000000000e+02 1.877360000000000184e+01
3.800000000000000000e+02 1.210000000000000000e+02 1.448399999999999999e+01
3.800000000000000000e+02 1.480000000000000000e+02 1.462139999999999986e+02
3.800000000000000000e+02 1.510000000000000000e+02 5.125180000000000291e+01
3.800000000000000000e+02 1.930000000000000000e+02 1.948659999999999926e+01
3.800000000000000000e+02 2.200000000000000000e+02 6.667140000000000555e+01
3.800000000000000000e+02 2.350000000000000000e+02 7.099270000000000636e+00
3.800000000000000000e+02 4.680000000000000000e+02 1.027339999999999918e+03
3.800000000000000000e+02 4.690000000000000000e+02 8.605410000000000537e+02
3.800000000000000000e+02 4.790000000000000000e+02 9.888540000000000418e+02
3.800000000000000000e+02 4.820000000000000000e+02 9.670829999999999700e+02
3.800000000000000000e+02 4.830000000000000000e+02 9.566970000000000027e+02
3.800000000000000000e+02 4.900000000000000000e+02 1.047960000000000036e+03
3.800000000000000000e+02 4.940000000000000000e+02 1.138640000000000100e+03
3.800000000000000000e+02 4.960000000000000000e+02 9.310979999999999563e+02
3.800000000000000000e+02 4.980000000000000000e+02 8.265430000000000064e+02
3.800000000000000000e+02 5.120000000000000000e+02 6.649339999999999691e+02
3.800000000000000000e+02 5.200000000000000000e+02 5.976900000000000546e+02
3.800000000000000000e+02 5.220000000000000000e+02 4.885160000000000196e+02
3.800000000000000000e+02 5.320000000000000000e+02 4.207529999999999859e+02
3.800000000000000000e+02 5.680000000000000000e+02 4.711460000000000292e+01
3.800000000000000000e+02 5.700000000000000000e+02 9.204479999999999507e+01
3.800000000000000000e+02 5.720000000000000000e+02 3.108369999999999891e+02
3.800000000000000000e+02 5.740000000000000000e+02 9.531040000000000134e+01
3.800000000000000000e+02 5.790000000000000000e+02 6.561669999999999447e+01
3.810000000000000000e+02 8.100000000000000000e+01 1.513739999999999952e+02
3.810000000000000000e+02 8.700000000000000000e+01 3.162379999999999924e+01
3.810000000000000000e+02 1.020000000000000000e+02 5.002879999999999683e+01
3.810000000000000000e+02 1.110000000000000000e+02 6.670360000000000511e+00
3.810000000000000000e+02 1.320000000000000000e+02 6.375100000000000477e+01
3.810000000000000000e+02 1.350000000000000000e+02 3.893440000000000367e+01
3.810000000000000000e+02 1.380000000000000000e+02 3.497120000000000317e+01
3.810000000000000000e+02 1.470000000000000000e+02 1.689939999999999998e+02
3.810000000000000000e+02 1.680000000000000000e+02 1.111819999999999986e+01
3.810000000000000000e+02 2.040000000000000000e+02 5.703479999999999706e+01
3.810000000000000000e+02 2.070000000000000000e+02 4.009070000000000356e+00
3.810000000000000000e+02 2.100000000000000000e+02 6.646090000000000941e+01
3.810000000000000000e+02 4.680000000000000000e+02 8.999030000000000200e+02
3.810000000000000000e+02 4.750000000000000000e+02 8.338210000000000264e+02
3.810000000000000000e+02 4.780000000000000000e+02 9.249329999999999927e+02
3.810000000000000000e+02 4.810000000000000000e+02 1.027870000000000118e+03
3.810000000000000000e+02 4.830000000000000000e+02 1.097290000000000191e+03
3.810000000000000000e+02 4.890000000000000000e+02 1.127150000000000091e+03
3.810000000000000000e+02 4.910000000000000000e+02 1.143680000000000064e+03
3.810000000000000000e+02 4.930000000000000000e+02 1.161809999999999945e+03
3.810000000000000000e+02 4.950000000000000000e+02 1.013500000000000114e+03
3.810000000000000000e+02 4.970000000000000000e+02 7.710969999999999800e+02
3.810000000000000000e+02 5.000000000000000000e+02 7.585610000000000355e+02
3.810000000000000000e+02 5.190000000000000000e+02 4.681330000000000382e+02
3.810000000000000000e+02 5.670000000000000000e+02 2.157570000000000050e+02
3.810000000000000000e+02 5.690000000000000000e+02 2.197199999999999775e+01
3.810000000000000000e+02 5.710000000000000000e+02 1.680329999999999870e+02
3.810000000000000000e+02 5.720000000000000000e+02 3.554250000000000114e+02
3.810000000000000000e+02 5.780000000000000000e+02 7.590240000000000009e+01
3.810000000000000000e+02 5.940000000000000000e+02 1.448550000000000004e+01
3.820000000000000000e+02 7.100000000000000000e+01 9.431929999999999836e+01
3.820000000000000000e+02 7.700000000000000000e+01 8.316279999999999006e+01
3.820000000000000000e+02 8.000000000000000000e+01 1.905020000000000095e+02
3.820000000000000000e+02 8.900000000000000000e+01 6.602900000000001057e+01
3.820000000000000000e+02 1.010000000000000000e+02 5.437960000000000349e+01
3.820000000000000000e+02 1.310000000000000000e+02 5.250269999999999726e+01
3.820000000000000000e+02 1.460000000000000000e+02 1.629609999999999843e+02
3.820000000000000000e+02 1.670000000000000000e+02 1.027049999999999983e+02
3.820000000000000000e+02 2.060000000000000000e+02 4.474689999999999657e+01
3.820000000000000000e+02 2.090000000000000000e+02 6.395360000000000156e+01
3.820000000000000000e+02 4.670000000000000000e+02 6.332799999999999727e+02
3.820000000000000000e+02 4.800000000000000000e+02 1.061210000000000036e+03
3.820000000000000000e+02 4.820000000000000000e+02 1.175720000000000027e+03
3.820000000000000000e+02 4.850000000000000000e+02 1.400529999999999973e+03
3.820000000000000000e+02 4.870000000000000000e+02 1.078089999999999918e+03
3.820000000000000000e+02 4.880000000000000000e+02 1.128670000000000073e+03
3.820000000000000000e+02 4.900000000000000000e+02 1.320850000000000136e+03
3.820000000000000000e+02 4.910000000000000000e+02 9.470140000000000100e+02
3.820000000000000000e+02 4.940000000000000000e+02 1.012809999999999945e+03
3.820000000000000000e+02 4.960000000000000000e+02 1.049220000000000027e+03
3.820000000000000000e+02 4.990000000000000000e+02 8.177520000000000664e+02
3.820000000000000000e+02 5.300000000000000000e+02 3.310769999999999982e+02
3.820000000000000000e+02 5.630000000000000000e+02 5.457869999999999777e+01
3.820000000000000000e+02 5.650000000000000000e+02 6.985769999999999413e+01
3.820000000000000000e+02 5.710000000000000000e+02 2.510310000000000059e+02
3.820000000000000000e+02 5.740000000000000000e+02 2.003679999999999950e+02
3.820000000000000000e+02 5.760000000000000000e+02 2.222330000000000041e+02
3.820000000000000000e+02 5.770000000000000000e+02 5.623699999999999477e+00
3.820000000000000000e+02 5.930000000000000000e+02 8.112750000000001194e+01
3.820000000000000000e+02 5.950000000000000000e+02 9.919339999999999691e+01
3.830000000000000000e+02 7.000000000000000000e+01 1.087749999999999915e+02
3.830000000000000000e+02 7.900000000000000000e+01 1.102489999999999952e+02
3.830000000000000000e+02 8.500000000000000000e+01 1.049859999999999971e+01
3.830000000000000000e+02 8.800000000000000000e+01 7.191290000000000759e+01
3.830000000000000000e+02 1.060000000000000000e+02 3.716029999999999944e+01
3.830000000000000000e+02 1.090000000000000000e+02 2.948620000000000019e+01
3.830000000000000000e+02 1.450000000000000000e+02 5.996329999999999671e+01
3.830000000000000000e+02 1.480000000000000000e+02 3.861330000000000240e+01
3.830000000000000000e+02 1.660000000000000000e+02 1.048269999999999982e+02
3.830000000000000000e+02 2.170000000000000000e+02 1.176319999999999943e+01
3.830000000000000000e+02 3.730000000000000000e+02 4.097669999999999959e+02
3.830000000000000000e+02 3.770000000000000000e+02 3.837769999999999868e+02
3.830000000000000000e+02 4.660000000000000000e+02 8.822569999999999482e+02
3.830000000000000000e+02 4.760000000000000000e+02 9.605930000000000746e+02
3.830000000000000000e+02 4.790000000000000000e+02 9.879149999999999636e+02
3.830000000000000000e+02 4.840000000000000000e+02 1.268350000000000136e+03
3.830000000000000000e+02 4.860000000000000000e+02 1.257220000000000027e+03
3.830000000000000000e+02 4.890000000000000000e+02 1.319169999999999845e+03
3.830000000000000000e+02 4.900000000000000000e+02 1.214180000000000064e+03
3.830000000000000000e+02 4.930000000000000000e+02 9.465049999999999955e+02
3.830000000000000000e+02 4.950000000000000000e+02 8.905650000000000546e+02
3.830000000000000000e+02 4.980000000000000000e+02 8.606829999999999927e+02
3.830000000000000000e+02 5.010000000000000000e+02 7.487709999999999582e+02
3.830000000000000000e+02 5.120000000000000000e+02 7.047520000000000664e+02
3.830000000000000000e+02 5.140000000000000000e+02 7.548580000000000609e+02
3.830000000000000000e+02 5.290000000000000000e+02 4.041680000000000064e+02
3.830000000000000000e+02 5.620000000000000000e+02 1.760120000000000005e+02
3.830000000000000000e+02 5.700000000000000000e+02 2.198930000000000007e+02
3.830000000000000000e+02 5.760000000000000000e+02 6.856950000000000500e+01
3.830000000000000000e+02 5.950000000000000000e+02 5.581739999999999924e+00
3.840000000000000000e+02 8.400000000000000000e+01 1.035139999999999958e+02
3.840000000000000000e+02 8.700000000000000000e+01 9.040109999999999957e+01
3.840000000000000000e+02 1.080000000000000000e+02 3.345429999999999637e+01
3.840000000000000000e+02 1.170000000000000000e+02 7.991460000000000896e+00
3.840000000000000000e+02 1.440000000000000000e+02 7.883859999999999957e+01
3.840000000000000000e+02 1.470000000000000000e+02 7.892180000000000462e+01
3.840000000000000000e+02 1.650000000000000000e+02 1.332139999999999986e+02
3.840000000000000000e+02 3.720000000000000000e+02 2.913050000000000068e+02
3.840000000000000000e+02 3.770000000000000000e+02 3.626329999999999814e+02
3.840000000000000000e+02 4.730000000000000000e+02 9.539029999999999063e+02
3.840000000000000000e+02 4.750000000000000000e+02 8.947239999999999327e+02
3.840000000000000000e+02 4.780000000000000000e+02 9.507959999999999354e+02
3.840000000000000000e+02 4.830000000000000000e+02 1.395230000000000018e+03
3.840000000000000000e+02 4.850000000000000000e+02 1.109500000000000000e+03
3.840000000000000000e+02 4.860000000000000000e+02 1.030880000000000109e+03
3.840000000000000000e+02 4.880000000000000000e+02 1.231780000000000200e+03
3.840000000000000000e+02 4.890000000000000000e+02 1.117899999999999864e+03
3.840000000000000000e+02 4.900000000000000000e+02 1.435000000000000000e+03
3.840000000000000000e+02 4.910000000000000000e+02 1.204900000000000091e+03
3.840000000000000000e+02 4.940000000000000000e+02 1.070370000000000118e+03
3.840000000000000000e+02 4.970000000000000000e+02 1.010599999999999909e+03
3.840000000000000000e+02 5.000000000000000000e+02 9.351680000000000064e+02
3.840000000000000000e+02 5.080000000000000000e+02 7.450660000000000309e+02
3.840000000000000000e+02 5.110000000000000000e+02 5.495600000000000591e+02
3.840000000000000000e+02 5.120000000000000000e+02 6.874370000000000118e+02
3.840000000000000000e+02 5.630000000000000000e+02 3.313209999999999695e+02
3.840000000000000000e+02 5.680000000000000000e+02 2.787589999999999577e+02
3.840000000000000000e+02 5.690000000000000000e+02 1.527360000000000184e+02
3.840000000000000000e+02 5.750000000000000000e+02 4.599810000000000620e+00
3.850000000000000000e+02 6.800000000000000000e+01 4.422910000000000252e+01
3.850000000000000000e+02 8.600000000000000000e+01 9.375989999999998759e+01
3.850000000000000000e+02 1.070000000000000000e+02 6.169230000000000658e+00
3.850000000000000000e+02 1.160000000000000000e+02 1.493990000000000151e+01
3.850000000000000000e+02 1.400000000000000000e+02 5.129249999999999687e+01
3.850000000000000000e+02 1.430000000000000000e+02 7.329739999999999611e+01
3.850000000000000000e+02 1.640000000000000000e+02 2.364670000000000130e+02
3.850000000000000000e+02 1.730000000000000000e+02 3.912100000000000222e+01
3.850000000000000000e+02 3.740000000000000000e+02 3.732920000000000300e+02
3.850000000000000000e+02 3.770000000000000000e+02 4.069060000000000059e+02
3.850000000000000000e+02 3.780000000000000000e+02 4.739320000000000164e+02
3.850000000000000000e+02 4.720000000000000000e+02 8.111409999999999627e+02
3.850000000000000000e+02 4.730000000000000000e+02 9.859230000000000018e+02
3.850000000000000000e+02 4.770000000000000000e+02 1.019759999999999991e+03
3.850000000000000000e+02 4.780000000000000000e+02 1.116740000000000009e+03
3.850000000000000000e+02 4.820000000000000000e+02 1.382589999999999918e+03
3.850000000000000000e+02 4.840000000000000000e+02 1.204299999999999955e+03
3.850000000000000000e+02 4.850000000000000000e+02 1.157509999999999991e+03
3.850000000000000000e+02 4.870000000000000000e+02 1.138300000000000182e+03
3.850000000000000000e+02 4.890000000000000000e+02 1.267230000000000018e+03
3.850000000000000000e+02 4.900000000000000000e+02 1.183580000000000155e+03
3.850000000000000000e+02 4.910000000000000000e+02 1.144250000000000000e+03
3.850000000000000000e+02 4.930000000000000000e+02 1.046089999999999918e+03
3.850000000000000000e+02 4.960000000000000000e+02 1.007149999999999977e+03
3.850000000000000000e+02 4.990000000000000000e+02 8.922219999999999800e+02
3.850000000000000000e+02 5.040000000000000000e+02 8.633250000000000455e+02
3.850000000000000000e+02 5.050000000000000000e+02 8.086699999999999591e+02
3.850000000000000000e+02 5.070000000000000000e+02 8.051330000000000382e+02
3.850000000000000000e+02 5.100000000000000000e+02 6.999320000000000164e+02
3.850000000000000000e+02 5.110000000000000000e+02 7.511839999999999691e+02
3.850000000000000000e+02 5.600000000000000000e+02 2.912309999999999945e+02
3.850000000000000000e+02 5.620000000000000000e+02 1.603660000000000139e+02
3.850000000000000000e+02 5.640000000000000000e+02 3.945049999999999955e+02
3.850000000000000000e+02 5.670000000000000000e+02 1.739380000000000166e+02
3.850000000000000000e+02 5.740000000000000000e+02 2.683609999999999900e+02
3.850000000000000000e+02 5.750000000000000000e+02 9.510800000000000409e+01
3.860000000000000000e+02 8.500000000000000000e+01 1.029800000000000040e+02
3.860000000000000000e+02 9.400000000000000000e+01 3.828969999999999985e+00
3.860000000000000000e+02 1.060000000000000000e+02 6.026839999999999975e+01
3.860000000000000000e+02 1.390000000000000000e+02 2.514550000000000196e+01
3.860000000000000000e+02 1.420000000000000000e+02 6.807989999999999498e+01
3.860000000000000000e+02 1.630000000000000000e+02 1.529050000000000011e+02
3.860000000000000000e+02 1.720000000000000000e+02 2.754869999999999930e+00
3.860000000000000000e+02 2.020000000000000000e+02 1.908960000000000079e+01
3.860000000000000000e+02 2.200000000000000000e+02 3.661699999999999733e+01
3.860000000000000000e+02 3.660000000000000000e+02 2.193410000000000082e+02
3.860000000000000000e+02 3.720000000000000000e+02 4.152029999999999745e+02
3.860000000000000000e+02 3.730000000000000000e+02 3.719499999999999886e+02
3.860000000000000000e+02 3.770000000000000000e+02 4.281949999999999932e+02
3.860000000000000000e+02 3.810000000000000000e+02 4.349100000000000250e+02
3.860000000000000000e+02 4.720000000000000000e+02 9.784669999999999845e+02
3.860000000000000000e+02 4.740000000000000000e+02 8.934990000000000236e+02
3.860000000000000000e+02 4.830000000000000000e+02 1.287069999999999936e+03
3.860000000000000000e+02 4.840000000000000000e+02 1.155009999999999991e+03
3.860000000000000000e+02 4.860000000000000000e+02 1.282520000000000209e+03
3.860000000000000000e+02 4.870000000000000000e+02 1.175230000000000018e+03
3.860000000000000000e+02 4.880000000000000000e+02 1.366670000000000073e+03
3.860000000000000000e+02 4.890000000000000000e+02 1.310910000000000082e+03
3.860000000000000000e+02 4.900000000000000000e+02 1.070740000000000009e+03
3.860000000000000000e+02 4.950000000000000000e+02 9.066229999999999336e+02
3.860000000000000000e+02 4.970000000000000000e+02 9.368450000000000273e+02
3.860000000000000000e+02 5.030000000000000000e+02 9.173240000000000691e+02
3.860000000000000000e+02 5.040000000000000000e+02 7.682980000000000018e+02
3.860000000000000000e+02 5.060000000000000000e+02 8.162989999999999782e+02
3.860000000000000000e+02 5.090000000000000000e+02 7.431399999999999864e+02
3.860000000000000000e+02 5.610000000000000000e+02 7.492050000000000409e+01
3.860000000000000000e+02 5.630000000000000000e+02 2.376999999999999886e+02
3.860000000000000000e+02 5.650000000000000000e+02 1.919890000000000185e+01
3.860000000000000000e+02 5.660000000000000000e+02 1.488930000000000007e+02
3.860000000000000000e+02 5.730000000000000000e+02 1.643990000000000009e+02
3.860000000000000000e+02 5.740000000000000000e+02 3.153879999999999768e+02
3.860000000000000000e+02 5.880000000000000000e+02 9.753729999999998768e+01
3.860000000000000000e+02 5.900000000000000000e+02 1.010589999999999975e+02
3.870000000000000000e+02 6.300000000000000000e+01 7.646980000000000111e+00
3.870000000000000000e+02 8.400000000000000000e+01 4.547010000000000218e+01
3.870000000000000000e+02 9.300000000000000000e+01 1.251889999999999930e+02
3.870000000000000000e+02 1.410000000000000000e+02 2.414320000000000022e+01
3.870000000000000000e+02 2.130000000000000000e+02 1.277859999999999996e+00
3.870000000000000000e+02 3.680000000000000000e+02 2.347129999999999939e+02
3.870000000000000000e+02 3.730000000000000000e+02 3.223059999999999832e+02
3.870000000000000000e+02 3.790000000000000000e+02 4.917339999999999804e+02
3.870000000000000000e+02 4.790000000000000000e+02 1.429500000000000000e+03
3.870000000000000000e+02 4.830000000000000000e+02 1.386319999999999936e+03
3.870000000000000000e+02 4.850000000000000000e+02 1.275259999999999991e+03
3.870000000000000000e+02 4.860000000000000000e+02 1.287469999999999800e+03
3.870000000000000000e+02 4.880000000000000000e+02 1.193610000000000127e+03
3.870000000000000000e+02 4.890000000000000000e+02 1.097860000000000127e+03
3.870000000000000000e+02 4.940000000000000000e+02 9.594769999999999754e+02
3.870000000000000000e+02 4.950000000000000000e+02 1.075009999999999991e+03
3.870000000000000000e+02 4.980000000000000000e+02 8.389720000000000937e+02
3.870000000000000000e+02 5.030000000000000000e+02 1.017679999999999950e+03
3.870000000000000000e+02 5.050000000000000000e+02 9.011539999999999964e+02
3.870000000000000000e+02 5.080000000000000000e+02 8.865420000000000300e+02
3.870000000000000000e+02 5.620000000000000000e+02 2.673229999999999791e+02
3.870000000000000000e+02 5.640000000000000000e+02 1.380670000000000073e+02
3.870000000000000000e+02 5.720000000000000000e+02 1.214680000000000035e+02
3.870000000000000000e+02 5.750000000000000000e+02 9.741009999999999280e+00
3.870000000000000000e+02 5.870000000000000000e+02 1.478710000000000093e+02
3.880000000000000000e+02 8.000000000000000000e+01 1.060129999999999839e+01
3.880000000000000000e+02 8.300000000000000000e+01 4.672899999999999920e+01
3.880000000000000000e+02 9.200000000000000000e+01 7.286730000000000018e+01
3.880000000000000000e+02 1.190000000000000000e+02 1.454329999999999927e+02
3.880000000000000000e+02 2.120000000000000000e+02 1.501909999999999989e+01
3.880000000000000000e+02 3.670000000000000000e+02 2.966320000000000050e+02
3.880000000000000000e+02 3.750000000000000000e+02 3.709560000000000173e+02
3.880000000000000000e+02 4.730000000000000000e+02 1.298659999999999854e+03
3.880000000000000000e+02 4.820000000000000000e+02 1.376220000000000027e+03
3.880000000000000000e+02 4.840000000000000000e+02 1.427509999999999991e+03
3.880000000000000000e+02 4.870000000000000000e+02 1.184069999999999936e+03
3.880000000000000000e+02 4.950000000000000000e+02 9.080650000000000546e+02
3.880000000000000000e+02 4.960000000000000000e+02 1.054070000000000164e+03
3.880000000000000000e+02 5.020000000000000000e+02 9.492179999999999609e+02
3.880000000000000000e+02 5.030000000000000000e+02 1.048880000000000109e+03
3.880000000000000000e+02 5.040000000000000000e+02 1.056259999999999991e+03
3.880000000000000000e+02 5.060000000000000000e+02 9.731779999999999973e+02
3.880000000000000000e+02 5.070000000000000000e+02 9.517130000000000791e+02
3.880000000000000000e+02 5.100000000000000000e+02 7.838210000000000264e+02
3.880000000000000000e+02 5.720000000000000000e+02 3.258029999999999973e+02
3.880000000000000000e+02 5.780000000000000000e+02 1.483199999999999932e+02
3.880000000000000000e+02 5.860000000000000000e+02 2.046810000000000116e+02
3.890000000000000000e+02 7.900000000000000000e+01 2.236120000000000019e+01
3.890000000000000000e+02 1.030000000000000000e+02 8.021309999999999718e+01
3.890000000000000000e+02 1.180000000000000000e+02 3.969669999999999987e+01
3.890000000000000000e+02 1.390000000000000000e+02 4.166519999999999868e+01
3.890000000000000000e+02 1.690000000000000000e+02 5.117880000000000251e+01
3.890000000000000000e+02 2.020000000000000000e+02 9.387600000000000477e+01
3.890000000000000000e+02 2.080000000000000000e+02 6.551849999999998886e+01
3.890000000000000000e+02 3.650000000000000000e+02 2.691390000000000100e+02
3.890000000000000000e+02 3.690000000000000000e+02 2.153490000000000180e+02
3.890000000000000000e+02 3.770000000000000000e+02 4.036410000000000196e+02
3.890000000000000000e+02 3.780000000000000000e+02 4.155910000000000082e+02
3.890000000000000000e+02 4.830000000000000000e+02 1.264529999999999973e+03
3.890000000000000000e+02 5.010000000000000000e+02 9.714370000000000118e+02
3.890000000000000000e+02 5.020000000000000000e+02 1.003789999999999964e+03
3.890000000000000000e+02 5.030000000000000000e+02 1.157920000000000073e+03
3.890000000000000000e+02 5.050000000000000000e+02 9.598830000000000382e+02
3.890000000000000000e+02 5.060000000000000000e+02 9.683190000000000737e+02
3.890000000000000000e+02 5.080000000000000000e+02 8.570400000000000773e+02
3.890000000000000000e+02 5.090000000000000000e+02 7.766889999999999645e+02
3.890000000000000000e+02 5.170000000000000000e+02 5.411570000000000391e+02
3.890000000000000000e+02 5.180000000000000000e+02 7.226510000000000673e+02
3.890000000000000000e+02 5.300000000000000000e+02 3.953900000000000432e+02
3.890000000000000000e+02 5.620000000000000000e+02 1.296809999999999832e+02
3.890000000000000000e+02 5.640000000000000000e+02 3.186300000000000523e+02
3.890000000000000000e+02 5.710000000000000000e+02 2.591879999999999882e+02
3.890000000000000000e+02 5.770000000000000000e+02 2.354809999999999945e+02
3.890000000000000000e+02 5.850000000000000000e+02 1.772810000000000059e+02
3.900000000000000000e+02 9.000000000000000000e+01 9.320250000000000057e+01
3.900000000000000000e+02 1.200000000000000000e+02 3.066079999999999828e+01
3.900000000000000000e+02 1.380000000000000000e+02 7.255819999999999936e+01
3.900000000000000000e+02 2.070000000000000000e+02 3.688400000000000123e+00
3.900000000000000000e+02 2.100000000000000000e+02 6.598160000000000025e+01
3.900000000000000000e+02 2.220000000000000000e+02 6.378730000000000189e+01
3.900000000000000000e+02 3.800000000000000000e+02 5.462830000000000155e+02
3.900000000000000000e+02 5.000000000000000000e+02 1.014450000000000045e+03
3.900000000000000000e+02 5.020000000000000000e+02 9.785620000000000118e+02
3.900000000000000000e+02 5.040000000000000000e+02 1.005120000000000005e+03
3.900000000000000000e+02 5.050000000000000000e+02 9.316259999999999764e+02
3.900000000000000000e+02 5.070000000000000000e+02 8.643669999999999618e+02
3.900000000000000000e+02 5.080000000000000000e+02 9.079270000000000209e+02
3.900000000000000000e+02 5.160000000000000000e+02 6.244490000000000691e+02
3.900000000000000000e+02 5.180000000000000000e+02 6.358999999999999773e+02
3.900000000000000000e+02 5.190000000000000000e+02 4.866109999999999900e+02
3.900000000000000000e+02 5.250000000000000000e+02 4.574320000000000164e+02
3.900000000000000000e+02 5.280000000000000000e+02 4.680860000000000127e+02
3.900000000000000000e+02 5.590000000000000000e+02 1.490529999999999973e+02
3.900000000000000000e+02 5.600000000000000000e+02 2.050919999999999845e+02
3.900000000000000000e+02 5.610000000000000000e+02 4.747630000000000194e+01
3.900000000000000000e+02 5.680000000000000000e+02 2.266040000000000134e+02
3.900000000000000000e+02 5.700000000000000000e+02 2.040229999999999961e+02
3.900000000000000000e+02 5.840000000000000000e+02 1.517479999999999905e+02
3.910000000000000000e+02 1.370000000000000000e+02 5.795960000000000001e+00
3.910000000000000000e+02 2.210000000000000000e+02 1.985849999999999937e+01
3.910000000000000000e+02 3.650000000000000000e+02 2.559660000000000366e+02
3.910000000000000000e+02 3.660000000000000000e+02 9.421280000000000143e+01
3.910000000000000000e+02 3.690000000000000000e+02 1.865819999999999936e+02
3.910000000000000000e+02 3.750000000000000000e+02 3.327169999999999845e+02
3.910000000000000000e+02 3.760000000000000000e+02 3.482019999999999982e+02
3.910000000000000000e+02 3.790000000000000000e+02 4.962460000000000377e+02
3.910000000000000000e+02 3.850000000000000000e+02 2.890000000000000000e+02
3.910000000000000000e+02 4.980000000000000000e+02 1.036329999999999927e+03
3.910000000000000000e+02 4.990000000000000000e+02 9.690549999999999500e+02
3.910000000000000000e+02 5.010000000000000000e+02 9.790769999999999982e+02
3.910000000000000000e+02 5.030000000000000000e+02 1.032509999999999991e+03
3.910000000000000000e+02 5.040000000000000000e+02 1.005919999999999959e+03
3.910000000000000000e+02 5.060000000000000000e+02 9.211380000000000337e+02
3.910000000000000000e+02 5.070000000000000000e+02 8.648679999999999382e+02
3.910000000000000000e+02 5.200000000000000000e+02 6.685900000000000318e+02
3.910000000000000000e+02 5.210000000000000000e+02 6.179109999999999445e+02
3.910000000000000000e+02 5.270000000000000000e+02 4.733999999999999773e+02
3.910000000000000000e+02 5.610000000000000000e+02 1.947659999999999911e+02
3.910000000000000000e+02 5.630000000000000000e+02 1.968820000000000050e+02
3.910000000000000000e+02 5.670000000000000000e+02 3.623999999999999773e+02
3.910000000000000000e+02 5.820000000000000000e+02 1.271870000000000012e+01
3.920000000000000000e+02 8.500000000000000000e+01 5.100890000000000413e+01
3.920000000000000000e+02 3.650000000000000000e+02 2.536310000000000002e+02
3.920000000000000000e+02 3.670000000000000000e+02 2.341529999999999916e+02
3.920000000000000000e+02 3.710000000000000000e+02 1.889399999999999977e+02
3.920000000000000000e+02 3.730000000000000000e+02 3.212229999999999563e+02
3.920000000000000000e+02 3.790000000000000000e+02 3.500249999999999773e+02
3.920000000000000000e+02 3.810000000000000000e+02 5.019350000000000023e+02
3.920000000000000000e+02 4.950000000000000000e+02 8.887060000000000173e+02
3.920000000000000000e+02 4.980000000000000000e+02 1.062509999999999991e+03
3.920000000000000000e+02 4.990000000000000000e+02 1.334109999999999900e+03
3.920000000000000000e+02 5.000000000000000000e+02 1.084070000000000164e+03
3.920000000000000000e+02 5.020000000000000000e+02 1.178379999999999882e+03
3.920000000000000000e+02 5.030000000000000000e+02 1.092889999999999873e+03
3.920000000000000000e+02 5.050000000000000000e+02 1.082809999999999945e+03
3.920000000000000000e+02 5.110000000000000000e+02 8.173160000000000309e+02
3.920000000000000000e+02 5.210000000000000000e+02 6.131939999999999600e+02
3.920000000000000000e+02 5.220000000000000000e+02 6.844749999999999091e+02
3.920000000000000000e+02 5.320000000000000000e+02 3.399170000000000300e+02
3.920000000000000000e+02 5.370000000000000000e+02 3.824300000000000068e+02
3.920000000000000000e+02 5.380000000000000000e+02 4.294689999999999941e+02
3.920000000000000000e+02 5.620000000000000000e+02 3.114659999999999940e+01
3.920000000000000000e+02 5.660000000000000000e+02 4.092299999999999613e+02
3.920000000000000000e+02 5.810000000000000000e+02 2.133439999999999941e+02
3.930000000000000000e+02 8.400000000000000000e+01 7.984099999999999397e+01
3.930000000000000000e+02 9.300000000000000000e+01 1.428439999999999941e+02
3.930000000000000000e+02 2.040000000000000000e+02 1.286959999999999980e+02
3.930000000000000000e+02 3.650000000000000000e+02 2.355939999999999941e+02
3.930000000000000000e+02 3.660000000000000000e+02 3.290070000000000050e+02
3.930000000000000000e+02 3.700000000000000000e+02 2.821259999999999764e+02
3.930000000000000000e+02 3.720000000000000000e+02 1.563309999999999889e+02
3.930000000000000000e+02 3.770000000000000000e+02 3.767730000000000246e+02
3.930000000000000000e+02 4.940000000000000000e+02 9.011490000000000009e+02
3.930000000000000000e+02 4.960000000000000000e+02 1.057060000000000173e+03
3.930000000000000000e+02 4.970000000000000000e+02 1.139420000000000073e+03
3.930000000000000000e+02 4.980000000000000000e+02 1.344910000000000082e+03
3.930000000000000000e+02 4.990000000000000000e+02 1.189040000000000191e+03
3.930000000000000000e+02 5.010000000000000000e+02 1.182150000000000091e+03
3.930000000000000000e+02 5.020000000000000000e+02 1.256240000000000009e+03
3.930000000000000000e+02 5.100000000000000000e+02 7.425960000000000036e+02
3.930000000000000000e+02 5.130000000000000000e+02 7.684250000000000682e+02
3.930000000000000000e+02 5.200000000000000000e+02 5.351979999999999791e+02
3.930000000000000000e+02 5.210000000000000000e+02 6.575020000000000664e+02
3.930000000000000000e+02 5.310000000000000000e+02 3.345720000000000027e+02
3.930000000000000000e+02 5.360000000000000000e+02 4.171349999999999909e+02
3.930000000000000000e+02 5.390000000000000000e+02 5.025720000000000027e+02
3.930000000000000000e+02 5.630000000000000000e+02 1.281850000000000023e+02
3.930000000000000000e+02 5.650000000000000000e+02 2.635529999999999973e+02
3.930000000000000000e+02 5.850000000000000000e+02 1.335020000000000095e+02
3.940000000000000000e+02 1.850000000000000000e+02 2.361029999999999962e+00
3.940000000000000000e+02 2.030000000000000000e+02 9.775739999999998986e+01
3.940000000000000000e+02 3.700000000000000000e+02 2.358199999999999932e+02
